# .PCD v0.7 - Point Cloud Data file format
VERSION 0.7
FIELDS x y z
SIZE 4 4 4
TYPE F F F
COUNT 1 1 1
WIDTH 1553
HEIGHT 1
VIEWPOINT 0 0 0 1 0 0 0
POINTS 1553
DATA ascii
17.112957 -18.2572 1.481019
17.112957 -18.384571 1.4865282
17.112957 -18.512896 1.4920964
17.112957 -18.642191 1.4977245
17.112957 -18.772455 1.503413
17.112955 -18.903725 1.5091636
17.112953 -19.036001 1.5149767
17.112953 -19.169298 1.5208528
11.766178 -13.272405 1.0497613
11.68423 -13.272405 1.0465496
11.602772 -13.272405 1.0433705
11.521809 -13.272405 1.0402229
11.441335 -13.272405 1.037107
11.361337 -13.272405 1.0340214
11.281816 -13.272405 1.0309672
11.202763 -13.272405 1.0279431
11.135791 -13.286273 1.0260203
11.135627 -13.380057 1.0302739
11.135461 -13.474629 1.0345762
11.135293 -13.569991 1.0389268
18.992811 -23.309919 1.7795682
19.003273 -23.488642 1.7881708
19.013872 -23.669153 1.7968822
19.024593 -23.851448 1.8057013
19.035458 -24.035587 1.8146329
5.4333892 -6.9097028 0.5202415
5.3947148 -6.9097028 0.51882982
5.3562479 -6.9097028 0.5174315
5.3560886 -6.959209 0.51974463
5.3560886 -7.0093689 0.52210069
5.3560886 -7.0599871 0.52448416
19.115507 -25.378908 1.8804545
19.127548 -25.579014 1.8903546
19.139748 -25.781277 1.9003849
19.152107 -25.985735 1.9105487
19.160593 -26.186924 1.9204421
19.175812 -26.399364 1.9311333
19.191231 -26.614218 1.9419694
19.206858 -26.831547 1.9529543
19.072128 -26.839506 1.9487085
18.927315 -26.832314 1.9434085
18.783306 -26.82519 1.9381628
18.640099 -26.818136 1.932971
18.497667 -26.811152 1.9278316
18.318533 -26.749481 1.9188199
18.178406 -26.743343 1.9138455
18.03903 -26.737272 1.9089227
17.900383 -26.731264 1.9040499
17.805262 -26.789701 1.9038029
18.301439 -27.744499 1.9671326
18.301439 -27.954948 1.9775414
18.301439 -28.167629 1.9880853
18.301439 -28.382603 1.9987664
18.301441 -28.599899 2.0095868
18.301441 -28.819555 2.0205483
18.301441 -29.04163 2.0316563
18.301441 -29.266165 2.042912
18.301443 -29.493202 2.054317
18.301443 -29.722788 2.0658751
18.301443 -29.954977 2.0775895
18.301443 -30.189823 2.0894623
18.301443 -30.427361 2.1014977
18.301443 -30.667658 2.113698
18.301443 -30.910767 2.1260662
18.301443 -31.15674 2.1386056
18.301443 -31.405632 2.15132
18.301445 -31.657511 2.1642132
18.301445 -31.912426 2.1772881
18.301445 -32.170441 2.1905479
18.301445 -32.431622 2.2039971
18.301447 -32.696045 2.2176404
18.301447 -32.963741 2.2314787
18.301447 -33.234821 2.2455192
18.301447 -33.509331 2.2597642
18.301447 -33.78735 2.274219
18.301447 -34.068935 2.2888865
18.301447 -34.354202 2.3037744
18.281071 -34.604626 2.3163018
18.130358 -34.609425 2.3124003
17.980131 -34.614174 2.3085375
17.830395 -34.618877 2.3047128
21.892134 -42.86961 2.8489227
21.701601 -42.862877 2.8434572
21.511843 -42.85622 2.8380499
21.3228 -42.849632 2.8326988
21.134504 -42.843124 2.8274064
20.94693 -42.836674 2.8221698
20.760063 -42.830296 2.8169885
20.573921 -42.82399 2.8118649
20.388447 -42.817753 2.8067946
20.203669 -42.811581 2.8017807
20.019579 -42.805477 2.7968206
19.836155 -42.799442 2.7919149
19.653368 -42.793457 2.7870617
19.471264 -42.78756 2.7822628
19.289782 -42.781719 2.7775159
19.10894 -42.775932 2.77282
18.92874 -42.770218 2.7681789
18.749149 -42.764568 2.763588
18.570173 -42.758984 2.7590485
18.391804 -42.753456 2.7545605
18.21402 -42.747997 2.7501211
18.036835 -42.742596 2.7457333
17.860229 -42.737255 2.741395
17.684189 -42.731972 2.7371054
17.991957 -43.905994 2.8082914
17.81621 -43.910545 2.8046136
17.673563 -43.996319 2.8061604
23.339279 -58.68808 3.7380404
23.339279 -59.286045 3.7709489
23.339279 -59.894646 3.8044891
23.339279 -60.514141 3.8386741
23.339281 -61.144905 3.873529
23.263517 -61.586655 3.896379
23.263523 -62.238777 3.9325089
23.263527 -62.903103 3.9693604
5.4894891 -15.002966 0.94552207
5.4048638 -14.931956 0.93986011
5.3398237 -14.913677 0.93753767
5.29884 -14.96252 0.9394474
23.339287 -66.637497 4.1788425
23.339287 -67.385643 4.2206578
23.299988 -68.034271 4.2561975
23.29999 -68.811852 4.2997622
23.29999 -69.605591 4.3442845
23.29999 -70.415962 4.3897924
23.29999 -71.243462 4.4363165
23.299992 -72.088707 4.4838896
23.283272 -72.899979 4.5292997
23.004971 -72.899979 4.5243154
5.3851886 -17.273535 1.0708642
5.3346772 -17.322704 1.0727592
22.173664 -72.899986 4.5097537
21.897749 -72.899986 4.5050282
21.622402 -72.899986 4.5003686
21.347639 -72.899986 4.4957714
21.073402 -72.899986 4.4912357
20.79973 -72.899986 4.4867644
20.526592 -72.899986 4.4823575
20.253986 -72.899994 4.4780107
19.981915 -72.899994 4.4737282
19.710354 -72.899994 4.4695058
19.439301 -72.899994 4.4653459
9.9721289 -37.924599 2.3208666
9.7922935 -37.772858 2.3094883
9.6792612 -37.877151 2.3137975
18.386396 -73.004623 4.4557018
18.235912 -73.482254 4.480967
17.965601 -73.482262 4.4771414
12.67921 -52.650799 3.2052183
12.420751 -52.374981 3.1857872
12.251653 -52.471706 3.1890659
17.184029 -74.766418 4.5404196
17.184036 -75.972389 4.6100101
17.184046 -77.215973 4.6818261
-11.098046 -79.7724 4.7667985
-11.38019 -79.7724 4.7691283
-8.9658031 -40.474026 2.4535227
-9.0718184 -40.290405 2.444284
-9.1770515 -40.108135 2.4351425
-9.3435707 -40.194279 2.4423261
-9.5138388 -40.292583 2.4502892
-9.6852026 -40.391521 2.458334
-9.8577118 -40.491119 2.4664617
-21.492771 -86.969406 5.3021331
-21.813095 -86.969406 5.3067131
-22.041119 -86.604568 5.2890849
-22.039288 -85.35775 5.2175746
-22.039288 -84.15107 5.1484561
-22.039284 -82.975876 5.081202
-22.039282 -81.830978 5.0157437
-22.039282 -80.715149 4.952004
-20.884035 -75.453506 4.6336107
-20.884033 -74.448257 4.5762968
-20.884033 -73.467468 4.5204344
-20.884033 -72.510399 4.4659758
-20.992596 -71.948143 4.4358034
-18.499989 -62.597069 3.8632145
-18.49999 -61.807602 3.8184285
-18.49999 -61.036224 3.7747154
-18.499992 -60.282356 3.7320385
-18.499994 -59.545254 3.6903543
-18.499994 -58.824463 3.6496372
-11.039287 -34.680946 2.1540685
-11.039287 -34.269268 2.1308641
-11.039287 -33.866375 2.1081796
-11.039287 -33.471985 2.0859995
-11.039286 -33.085743 2.064302
-11.039285 -32.707523 2.0430808
-11.039285 -32.336941 2.0223117
-11.039285 -31.973843 2.0019865
-11.039285 -31.617954 1.9820886
-11.039285 -31.269081 1.9626055
-11.039283 -30.926987 1.9435258
-11.039282 -30.591454 1.9248352
-11.039282 -30.262352 1.9065247
-11.039282 -29.939419 1.8885808
-11.039282 -29.622528 1.8709946
-11.039282 -29.311459 1.853754
-11.039281 -29.006069 1.8368502
-11.039281 -28.706186 1.8202739
-11.03928 -28.411703 1.8040166
-11.03928 -28.122383 1.7880664
-11.03928 -27.838158 1.7724185
-11.03928 -27.558857 1.7570629
-10.968043 -27.108276 1.7307501
-10.968043 -26.840166 1.7160501
-10.968044 -26.576576 1.7016191
-10.968044 -26.317383 1.687449
-11.039277 -26.231733 1.6844025
-11.039277 -25.979374 1.6706462
-11.039277 -25.73107 1.6571298
-11.039277 -25.48674 1.6438513
-11.039277 -25.246317 1.6308041
-11.039276 -25.009684 1.6179819
-11.103655 -24.921211 1.6147385
-11.197441 -24.899052 1.6158094
-11.301415 -24.899052 1.6183434
-11.405715 -24.899052 1.6209044
-11.510352 -24.899052 1.6234937
-11.615326 -24.899052 1.6261101
-11.765134 -24.993555 1.6349368
-11.853114 -24.955519 1.635128
-11.95937 -24.955519 1.6378355
-12.065971 -24.955519 1.6405725
-12.172932 -24.955519 1.6433377
-12.280253 -24.955519 1.646132
-12.387941 -24.955519 1.6489563
-12.496009 -24.955519 1.6518102
-12.604437 -24.955519 1.6546931
-12.713255 -24.955519 1.6576066
-12.822454 -24.955519 1.6605501
-12.932049 -24.955519 1.6635246
-13.042036 -24.955519 1.6665301
-13.152423 -24.955519 1.6695657
-13.263211 -24.955519 1.6726336
-13.374409 -24.955519 1.6757317
-13.486021 -24.955519 1.6788626
-13.598057 -24.955519 1.682025
-13.710517 -24.955519 1.6852198
-13.823405 -24.955519 1.6884465
-13.936724 -24.955519 1.6917071
-14.050482 -24.955519 1.6949997
-14.164687 -24.955519 1.6983261
-14.279342 -24.955519 1.7016864
-14.394455 -24.955519 1.7050796
-14.510036 -24.955519 1.708508
-14.626075 -24.955519 1.7119708
-14.742587 -24.955519 1.7154679
-14.859575 -24.955519 1.7189994
-15.016974 -25.022043 1.727159
-15.060867 -24.899067 1.7222652
-15.17906 -24.899067 1.7258964
-15.297755 -24.899067 1.7295632
-15.416967 -24.899069 1.7332668
-15.536674 -24.899069 1.7370071
-15.656911 -24.899069 1.7407846
-15.777669 -24.899069 1.7445998
-15.898966 -24.899073 1.7484527
-16.02079 -24.899073 1.7523441
-18.53928 -28.594824 2.0169568
-18.53928 -28.378719 2.0062375
-18.53928 -28.164892 1.9956541
-18.53928 -27.953329 1.9852076
-18.539278 -27.74394 1.9748917
-18.539278 -27.536737 1.9647069
-18.539278 -27.331659 1.9546499
-18.539278 -27.128653 1.9447184
-18.539278 -26.9277 1.9349113
-18.539276 -26.72875 1.9252238
-18.539276 -26.531811 1.9156585
-18.539276 -26.336788 1.9062076
-18.539276 -26.143696 1.8968744
-18.539276 -25.952475 1.8876538
-18.539276 -25.763107 1.8785453
-18.539276 -25.575546 1.8695464
-18.539276 -25.389784 1.8606558
-18.539276 -25.205761 1.8518705
-18.539276 -25.023485 1.8431911
-18.62673 -24.960083 1.8432684
-18.725933 -24.912306 1.8445244
-18.861504 -24.912306 1.8493571
-18.997789 -24.912306 1.8542371
-19.13479 -24.912306 1.8591642
-19.272526 -24.91231 1.8641415
-19.411001 -24.91231 1.8691673
-19.550238 -24.91231 1.8742442
-19.690224 -24.91231 1.8793707
-19.830969 -24.91231 1.8845468
-19.9725 -24.912312 1.8897748
-20.114834 -24.912312 1.8950553
-20.257971 -24.912312 1.9003892
-20.401894 -24.912313 1.9057741
-20.54665 -24.912313 1.9112144
-20.69223 -24.912313 1.916708
-20.838667 -24.912313 1.9222574
-20.985931 -24.912313 1.9278612
-21.134087 -24.912317 1.9335222
-21.2831 -24.912317 1.9392395
-21.432993 -24.912317 1.945013
-21.583784 -24.912319 1.9508457
-21.735502 -24.912319 1.9567375
-21.888144 -24.912319 1.9626884
-22.041704 -24.912319 1.968699
-22.196194 -24.912319 1.9747696
-22.35166 -24.912321 1.9809027
-22.508108 -24.912321 1.9870982
-22.665514 -24.912321 1.9933562
-22.823944 -24.912323 1.9996781
-22.983364 -24.912323 2.0060635
-23.143808 -24.912323 2.0125146
-23.305283 -24.912323 2.019032
-5.8537493 -6.2140617 0.50526404
-5.8537493 -6.171042 0.50341415
-5.8548326 -6.1294689 0.50167584
-5.8956213 -6.1294689 0.50334644
-5.9366808 -6.1294694 0.50503397
-5.9780197 -6.1294694 0.50673938
-8.4040241 -8.5573559 0.70986438
-8.4040241 -8.4981995 0.70737052
-8.4040241 -8.4394608 0.70490313
-8.4040241 -8.3811274 0.70246077
-8.4040241 -8.3231983 0.70004416
-8.4040241 -8.2656574 0.69765186
-8.4040241 -8.2085085 0.69528437
-8.4040241 -8.1517525 0.69294119
-8.4040241 -8.095377 0.69062233
-8.4040241 -8.0393744 0.68832707
-8.4040241 -7.983737 0.68605518
-8.4040241 -7.9284711 0.68380594
-8.4504061 -7.9170194 0.68534184
-8.5093632 -7.9170194 0.6878922
-8.5687599 -7.9170194 0.69047046
-8.628603 -7.9170194 0.6930759
-8.6889057 -7.9170194 0.69570971
-8.7496672 -7.9170194 0.69837236
-8.8108912 -7.9170194 0.70106339
-8.872591 -7.9170194 0.70378399
-28.119144 -24.916113 2.2235746
-28.316393 -24.916115 2.2323251
-28.486774 -24.891264 2.2389383
-28.539282 -24.76313 2.2363019
-28.539282 -24.59017 2.2296062
-28.539282 -24.418232 2.2229772
-28.539284 -24.247299 2.216414
-28.539284 -24.077387 2.2099161
-28.539284 -23.908457 2.2034817
-28.539284 -23.740498 2.1971116
-28.539284 -23.573524 2.190805
-28.539284 -23.407495 2.1845598
-28.539284 -23.242407 2.1783767
-28.539284 -23.078232 2.1722536
-28.539284 -22.914995 2.1661925
-28.539286 -22.752661 2.1601901
-28.539286 -22.591234 2.1542473
-28.539286 -22.430674 2.1483622
-28.539286 -22.270987 2.1425347
-28.539286 -22.112164 2.1367645
-28.539286 -21.954208 2.1310515
-28.539286 -21.797079 2.1253948
-28.539286 -21.640781 2.1197929
-28.539286 -21.4853 2.1142449
-28.539286 -21.330627 2.1087518
-28.539289 -21.17676 2.103313
-28.539289 -21.023684 2.0979266
-28.539289 -20.871389 2.0925937
-28.539289 -20.719856 2.0873117
-28.539289 -20.569096 2.0820823
-28.539289 -20.419071 2.0769029
-28.539289 -20.269796 2.071774
-28.539289 -20.121271 2.0666971
-28.539289 -19.973459 2.0616684
-28.539289 -19.826353 2.0566888
-28.539291 -19.679951 2.0517569
-28.539291 -19.534267 2.046875
-28.539291 -19.389273 2.0420403
-28.539291 -19.244953 2.0372524
-28.539291 -19.101295 2.0325112
-28.539291 -18.958323 2.0278168
-28.539291 -18.815989 2.0231676
-28.539291 -18.674316 2.0185647
-28.539291 -18.533283 2.0140061
-28.539291 -18.392895 2.0094934
-28.539291 -18.253113 2.0050235
-28.539291 -18.113951 2.0005975
-28.539293 -17.975405 1.9962158
-28.539293 -17.837475 1.9918766
-28.539293 -17.700138 1.9875808
-28.539293 -17.563372 1.9833264
-28.539293 -17.427195 1.9791141
-14.130669 -8.5615931 0.97785282
-14.049833 -8.4461489 0.97022629
-13.970243 -8.3324804 0.96272874
-13.919724 -8.2370338 0.95727277
-13.970256 -8.2016516 0.95878577
-14.020944 -8.1661587 0.96031499
-14.071796 -8.1305513 0.96186113
-14.122814 -8.0948286 0.96342349
-14.174 -8.0589876 0.96500278
-14.225348 -8.0230341 0.96659899
-14.276871 -7.9869561 0.96821189
-14.32857 -7.9507565 0.96984172
-14.380442 -7.9144359 0.97148919
-28.539297 -15.578225 1.9243517
-28.539297 -15.449992 1.9207268
-28.539297 -15.322248 1.9171391
-28.539297 -15.194972 1.9135876
-28.539297 -15.068181 1.9100718
-28.607983 -14.977809 1.91118
-28.776798 -14.939262 1.9189858
-29.022501 -14.939263 1.9319034
-29.271507 -14.939265 1.9450188
-29.523952 -14.939266 1.9583383
-29.779869 -14.939266 1.9718652
-30.039354 -14.939267 1.9856048
-30.302473 -14.939268 1.9995599
-30.569326 -14.93927 2.0137382
-30.840019 -14.939271 2.0281439
-31.11459 -14.939272 2.0427814
-31.393137 -14.939273 2.0576553
-31.67581 -14.939275 2.0727744
-31.962652 -14.939276 2.0881414
-32.253792 -14.939277 2.1037641
-32.524368 -14.927817 2.1180229
-32.849339 -14.93928 2.1357994
-33.15398 -14.939281 2.1522245
-33.46336 -14.939281 2.1689324
-33.777561 -14.939283 2.1859255
-34.096741 -14.939284 2.2032151
-19.859873 -8.6195116 1.2813377
-19.716516 -8.4761562 1.270184
-19.57563 -8.335268 1.259238
-19.474461 -8.2125292 1.250891
-19.530493 -8.156498 1.2526653
-19.586689 -8.1003017 1.2544603
-19.643044 -8.0439472 1.2562752
-19.699558 -7.987432 1.2581108
-19.756247 -7.9307456 1.2599669
-37.591797 -14.939298 2.3941216
-37.975029 -14.939301 2.4152145
-38.365032 -14.939301 2.4367094
-38.685253 -14.909691 2.4537492
-39.063305 -14.9 2.4744358
-39.473888 -14.900002 2.4971561
-39.892052 -14.900001 2.5203252
-64.539284 -23.851206 4.0722528
-64.539284 -23.597143 4.0670633
-64.539284 -23.343697 4.0619369
-64.539284 -23.090918 4.0568728
-64.539284 -22.838758 4.0518699
-64.539284 -22.587193 4.0469275
-64.539276 -22.33626 4.0420451
-64.539276 -22.085941 4.0372243
-64.539276 -21.836182 4.0324631
-64.539276 -21.58703 4.0277615
-25.265261 -8.3533859 1.574934
-25.27352 -8.258997 1.5736539
-25.281765 -8.1647587 1.5723951
-25.289997 -8.0706663 1.5711567
-25.660173 -8.0908508 1.5924015
-64.539276 -20.103943 4.0007839
-64.539276 -19.85865 3.996491
-64.539276 -19.613886 3.9922533
-64.539276 -19.36965 3.9880748
-64.539276 -19.125902 3.9839516
-64.539276 -18.882685 3.9798856
-64.539276 -18.639946 3.9758759
-64.539276 -18.397675 3.9719195
-64.539268 -18.155897 3.9680214
-30.747206 -8.534709 1.888577
-30.747206 -8.4199696 1.8867722
-30.747206 -8.3054485 1.8849926
-30.747206 -8.1911373 1.8832402
-30.747206 -8.0770502 1.8815141
-30.747206 -7.9631615 1.8798122
-31.011724 -7.9169993 1.8942938
-71.300896 -17.939283 4.3514566
-72.360519 -17.939283 4.4123025
-73.450241 -17.939283 4.4749284
-74.500908 -17.922346 4.5351267
-75.474365 -17.879841 4.5905819
-36.428329 -8.4965467 2.2138762
-36.317276 -8.3379507 2.2053571
-36.310215 -8.2038641 2.203187
-36.453575 -8.1034832 2.2101669
-36.597839 -8.0024691 2.2172179
-36.74305 -7.9007931 2.2243419
-76.999985 -16.277988 4.6579623
-76.999985 -15.999198 4.6545782
-42.238125 -8.6236296 2.5514321
-42.047386 -8.4328918 2.5381284
-41.858612 -8.2441206 2.5249925
-41.958652 -8.1127663 2.5293145
-42.085438 -7.98598 2.5352726
-76.999985 -14.334745 4.6355405
-76.999985 -14.058633 4.6325774
-76.999985 -13.782866 4.629673
-47.608711 -8.351572 2.860745
-47.623367 -8.1840162 2.8599033
-77.15432 -12.983539 4.6305795
-78.48954 -12.928484 4.7079959
-80.164101 -12.918935 4.8057256
-52.859695 -8.3306751 3.1671133
-52.891926 -8.1478672 3.1673317
-84.735229 -12.752572 5.0715284
-39.834049 -5.8537755 2.3828969
-58.504864 -8.3903618 3.498035
-58.402363 -8.1690578 3.4901919
-58.584011 -7.9874077 3.4993706
-64.096237 -8.5126362 3.8268437
-63.836555 -8.2529545 3.8096075
-63.983715 -8.0464735 3.8167009
-69.5644 -8.2585621 4.1460781
-69.585571 -8.0164671 4.145659
-87.783379 -8.5734234 5.2201748
-87.377792 -8.2279959 5.1943288
-93.051254 -8.4367628 5.5298257
-92.967224 -8.1041975 5.5231276
-98.310112 -8.2265139 5.8388152
-98.621925 -7.9082665 5.8556705
-94.055161 13.773561 5.6260228
-93.801514 14.068874 5.6137357
-93.80545 14.402275 5.6169267
-93.809464 14.736072 5.620193
-93.813576 15.070278 5.6235356
-93.81778 15.404902 5.6269584
-76.405807 12.818144 4.5852718
-76.315559 13.075261 4.5825481
-76.225418 13.332089 4.5798845
-76.709213 13.691062 4.6117802
-93.840279 17.084639 5.6452289
-33.704491 6.2571068 2.028882
-93.849953 17.759787 5.6530852
-93.854942 18.098104 5.6571317
-93.860008 18.436943 5.6612573
-93.865181 18.776257 5.665463
-93.870468 19.116123 5.6697497
-93.875839 19.456547 5.6741157
-93.88131 19.797489 5.6785607
-93.886879 20.138979 5.6830888
-93.892548 20.481083 5.6876979
-93.898331 20.823738 5.6923871
-93.904205 21.167011 5.6971612
-93.910187 21.510834 5.7020154
-52.512318 12.220166 3.1909842
-51.951912 12.279853 3.1595001
-51.951351 12.47011 3.1620755
-51.950779 12.660666 3.1646948
-73.937668 18.290874 4.5079117
-93.941704 23.58555 5.732491
-93.948402 23.93391 5.7379289
-73.279594 18.939281 4.4795599
-72.24456 18.939281 4.4202776
-71.23645 18.939281 4.3625889
-70.254326 18.939281 4.3064394
-69.29715 18.939281 4.2517672
-68.363991 18.939281 4.1985164
-67.453888 18.939281 4.1466327
-66.566017 18.939281 4.096066
-65.69944 18.939281 4.0467596
-64.853592 18.939281 3.9986806
-64.027504 18.939281 3.9517727
-63.5 19.022987 3.923264
-63.5 19.263226 3.9273682
-63.5 19.503963 3.9315281
-63.5 19.745214 3.9357433
-63.5 19.986992 3.9400163
-63.5 20.229313 3.9443455
-63.5 20.472132 3.9487319
-63.5 20.715517 3.9531755
-63.5 20.959467 3.9576774
-63.5 21.203964 3.9622374
-63.5 21.449022 3.9668546
-63.5 21.69466 3.9715309
-63.5 21.940874 3.9762654
-63.5 22.187702 3.981061
-63.5 22.435089 3.9859147
-63.5 22.683102 3.990828
-63.5 22.931749 3.9958024
-63.5 23.181007 4.0008373
-63.5 23.430874 4.0059323
-63.5 23.681416 4.0110893
-63.5 23.932587 4.0163078
-63.5 24.184443 4.0215902
-63.5 24.436926 4.0269327
-63.5 24.690092 4.0323381
-63.5 24.943974 4.0378079
-63.5 25.198515 4.0433397
-63.5 25.453749 4.0489359
-63.5 25.709728 4.0545983
-63.5 25.966406 4.0603228
-63.5 26.223837 4.0661144
-63.5 26.481991 4.0719705
-63.5 26.740868 4.0778933
-63.5 27.000542 4.0838823
-63.5 27.260965 4.0899377
-63.5 27.522163 4.0960612
-63.5 27.784145 4.102252
-63.5 28.046919 4.10851
-63.5 28.310507 4.1148381
-63.5 28.57493 4.1212363
-63.5 28.840145 4.1277022
-63.5 29.106236 4.1342397
-63.5 29.373144 4.1408458
-26.922663 12.567128 1.7584634
-26.6406 12.548169 1.7428722
-26.363548 12.529572 1.7275796
-26.091381 12.511328 1.7125773
-25.823935 12.493425 1.6978569
-25.56115 12.475862 1.6834135
-25.302834 12.458623 1.6692367
-25.048874 12.441699 1.6553197
-24.799171 12.425083 1.6416564
-24.553617 12.40877 1.6282396
-24.312101 12.392746 1.6150646
-24.074509 12.377009 1.6021228
-23.840723 12.361547 1.5894091
-23.610704 12.346357 1.5769188
-23.384306 12.33143 1.5646448
-23.161432 12.316762 1.5525815
-22.942043 12.302343 1.5407255
-22.726004 12.288171 1.5290697
-22.513283 12.274238 1.5176125
-22.303755 12.260534 1.5063453
-22.097343 12.24706 1.4952648
-21.894018 12.23381 1.4843678
-21.693672 12.220777 1.4736495
-21.49622 12.207952 1.4631038
-21.301626 12.195336 1.4527292
-21.109829 12.182922 1.4425218
-20.920727 12.170705 1.4324753
-20.734287 12.158681 1.4225883
-20.550425 12.146848 1.4128556
-20.369118 12.135195 1.4032753
-20.190302 12.123728 1.3938441
-20.013885 12.112433 1.384557
-19.839853 12.101314 1.3754127
-19.668137 12.090361 1.3664067
-19.498695 12.079575 1.3575377
-19.331469 12.06895 1.3488011
-19.166416 12.058486 1.3401945
-19.003483 12.048174 1.3317156
-18.842646 12.038014 1.3233624
-18.683836 12.028005 1.3151302
-18.527023 12.018142 1.3070183
-18.372171 12.00842 1.2990239
-18.219227 11.998837 1.2911441
-18.068157 11.989392 1.2833774
-17.918932 11.980083 1.2757215
-17.771492 11.970903 1.268173
-17.585003 11.93414 1.2578111
-17.441183 11.925093 1.2504747
-17.299051 11.916166 1.2432399
-17.158592 11.907368 1.2361057
-17.019768 11.898688 1.2290707
-17.015102 11.983491 1.2317271
-17.0151 12.071987 1.2347503
-17.476055 12.490376 1.2713377
-17.337019 12.482065 1.2643654
-17.199522 12.473865 1.257484
-17.063528 12.465774 1.2506952
-16.929026 12.45779 1.2439959
-16.795984 12.449912 1.2373846
-16.664385 12.442139 1.2308617
-16.534182 12.434461 1.2244203
-16.405348 12.426889 1.2180662
-16.277885 12.419412 1.2117922
-16.151754 12.412031 1.2055998
-16.026915 12.404743 1.1994851
-15.903371 12.397551 1.1934493
-15.822338 12.422836 1.1905949
-15.822338 12.511782 1.1938534
-15.822338 12.601211 1.1971419
-16.312952 13.084658 1.237689
-16.312952 13.177891 1.2411492
-16.312952 13.271641 1.2446434
-16.312952 13.365932 1.2481728
-16.312952 13.460754 1.2517369
-16.312952 13.55612 1.2553368
-16.31295 13.65204 1.2589726
-16.312948 13.748518 1.2626448
-16.31295 13.845561 1.2663538
-16.312948 13.943181 1.2701001
-16.312948 14.041371 1.2738836
-16.31295 14.140165 1.2777059
-16.312948 14.239543 1.2815657
-16.312948 14.339523 1.285465
-16.312948 14.440117 1.2894032
-16.312948 14.541338 1.2933822
-16.312948 14.643176 1.2974002
-16.312948 14.745664 1.30146
-16.312948 14.848777 1.3055601
-16.312948 14.952563 1.3097029
-16.312948 15.057002 1.3138874
-16.312948 15.162109 1.3181145
-16.312946 15.267907 1.3223853
-16.312946 15.374372 1.326699
-16.312946 15.481547 1.3310575
-16.312946 15.58944 1.3354619
-16.312946 15.698037 1.33991
-16.312944 15.807361 1.3444045
-16.312946 15.917434 1.3489463
-16.312946 16.028246 1.3535347
-16.251951 16.079487 1.3530927
-16.144753 16.084602 1.3488014
-16.038204 16.089661 1.3445549
-15.932299 16.094675 1.3403478
-15.827046 16.099638 1.3361826
-15.790417 16.174189 1.3378179
-15.790417 16.286814 1.3425977
-15.790419 16.400242 1.347424
-17.511282 18.314262 1.4996791
-17.511282 18.441881 1.5051475
-17.511282 18.570438 1.5106742
-17.511282 18.699951 1.5162599
-17.511282 18.830425 1.5219054
-17.511282 18.961857 1.5276113
-17.511282 19.094303 1.5333791
-17.511282 19.227743 1.5392089
-17.511282 19.362207 1.5451021
-17.511284 19.497702 1.5510595
-17.511282 19.634247 1.5570807
-17.511284 19.77186 1.5631688
-17.511282 19.91057 1.5693238
-17.511282 20.05035 1.5755455
-17.511282 20.191269 1.5818367
-17.511282 20.333303 1.5881968
-17.511284 20.476496 1.5946281
-17.511284 20.620853 1.601131
-17.511284 20.766384 1.6077061
-17.511286 20.913124 1.6143551
-17.511286 21.061081 1.6210785
-17.511284 21.210279 1.6278787
-17.511284 21.360769 1.6347566
-17.452971 21.440844 1.6362438
-17.333868 21.446012 1.632041
-17.215343 21.451136 1.6278763
-17.097412 21.456205 1.6237521
-17.015377 21.505835 1.6230326
-18.134359 23.084236 1.7373953
-18.145088 23.263519 1.7461429
-18.155956 23.444649 1.7550015
-18.081688 23.516781 1.7556963
-17.952261 23.516781 1.7510376
-17.823517 23.516781 1.7464252
-17.711477 23.538082 1.7434344
-17.708082 23.704235 1.7511821
-17.708082 23.876495 1.7593603
-17.708082 24.050371 1.7676363
-17.708082 24.225891 1.7760124
-17.708082 24.403101 1.7844901
-17.708082 24.581982 1.7930698
-17.70808 24.762602 1.8017545
-17.708082 24.945019 1.8105474
-17.708082 25.129194 1.819447
-17.708082 25.315197 1.8284564
-17.708082 25.503048 1.8375778
-18.350786 26.625282 1.9138422
-18.364428 26.843847 1.9249625
-18.388826 27.08057 1.9373541
-18.405439 27.308329 1.9490695
-18.422289 27.538935 1.9609561
-18.439377 27.772392 1.9730148
-18.366173 27.87142 1.975513
-18.223412 27.864628 1.97054
-18.08139 27.857901 1.9656177
-17.940075 27.851234 1.9607449
-17.799513 27.844627 1.9559231
-17.659637 27.838091 1.9511504
-17.487314 27.778988 1.9427447
-17.349529 27.773294 1.9381266
-17.212444 27.767656 1.9335566
-17.075975 27.762075 1.9290323
-17.0151 27.879301 1.9330654
-17.51128 28.917353 2.0008178
-17.51128 29.144999 2.0123553
-17.51128 29.375282 2.0240493
-17.51128 29.608271 2.0359063
-17.51128 29.843994 2.0479269
-17.51128 30.082529 2.0601163
-17.51128 30.323906 2.072475
-17.51128 30.568222 2.0850096
-17.51128 30.815508 2.0977216
-17.511282 31.065859 2.1106162
-17.511282 31.319258 2.1236935
-17.511282 31.575872 2.1369634
-17.511282 31.835688 2.150424
-17.511282 32.098793 2.1640806
-17.511282 32.365276 2.1779394
-17.511282 32.635193 2.1920023
-17.511282 32.90863 2.2062759
-17.511282 33.185642 2.2207632
-17.511282 33.466316 2.2354693
-17.458532 33.649086 2.2436156
-17.308018 33.64389 2.2392559
-17.158098 33.638748 2.2349405
-17.00877 33.633663 2.2306685
-16.860023 33.628624 2.2264428
-16.711864 33.623638 2.2222605
-16.56426 33.61871 2.2181234
-16.417236 33.613838 2.2140341
-16.270761 33.609009 2.2099853
-16.124821 33.604237 2.2059817
-15.979445 33.599522 2.2020245
-15.834603 33.594852 2.1981039
-15.82235 33.872974 2.2126975
-16.189009 34.973743 2.2809215
-16.043816 34.977772 2.2775426
-15.899029 34.981758 2.2741985
-15.790427 35.065125 2.2760429
-19.446394 43.586876 2.824789
-19.526215 44.176914 2.858624
-19.558926 44.669228 2.8860736
-19.592329 45.171234 2.9141002
-19.626438 45.683231 2.9427233
-19.66128 46.205566 2.9719577
-19.670509 46.675888 2.9978032
-19.70813 47.222034 3.0284719
-19.611223 47.452229 3.0388556
-19.416853 47.44743 3.0342169
-19.223122 47.442688 3.029633
-19.029938 47.437996 3.0250998
-18.837383 47.433365 3.0206203
-18.645384 47.428772 3.016192
-18.453976 47.424252 3.011816
-18.263414 47.420486 3.0075364
-18.075735 47.422901 3.0036955
-17.888519 47.425278 2.9998989
-17.701773 47.427635 2.9961467
-17.515476 47.429955 2.9924374
-17.329628 47.432255 2.9887729
-17.144236 47.434528 2.9851518
-17.698242 49.503819 3.1114945
-17.69824 50.050629 3.1419878
-17.594522 50.311863 3.1545367
-17.405979 50.332233 3.1520095
-17.217735 50.352543 3.1495237
-17.065838 50.4795 3.1537442
-18.01417 53.899975 3.3635173
-17.806599 53.899975 3.3596439
-17.634766 54.00798 3.3625417
-17.53928 54.353653 3.3802562
-17.53928 55.00565 3.4170012
-17.53928 55.671986 3.4545951
-17.53928 56.353157 3.4930682
-17.53928 57.049637 3.5324492
-17.53928 57.762119 3.5727763
-17.53928 58.490967 3.6140733
-17.463531 58.981113 3.6405954
-17.539282 60.000462 3.699738
-17.539282 60.782452 3.7441831
-17.539284 61.583488 3.7897568
-17.539284 62.404255 3.8364992
-17.539284 63.24535 3.8844457
-11.886357 70.737007 4.2452641
-11.646284 70.810059 4.2471976
-11.4242 70.996407 4.2559733
12.955375 69.693108 4.1954465
13.13971 69.345566 4.1772442
9.7987099 40.779434 2.4822268
9.8157759 40.235687 2.4511862
9.9637384 40.235767 2.4532819
5.3346772 17.141821 1.0625322
5.375937 17.065552 1.058954
18.312254 53.558186 3.3500028
18.312252 52.957535 3.3163857
18.31225 52.368782 3.2834735
18.31225 51.791611 3.2512479
17.183958 48.069386 3.0213065
17.183958 47.548477 2.9922943
17.183956 47.037498 2.96387
17.183954 46.536152 2.9360166
17.183954 46.044147 2.9087176
17.183952 45.561115 2.8819518
17.18395 45.086948 2.85571
17.18395 44.621326 2.8299761
17.294516 44.448162 2.8227806
17.480591 44.469421 2.8279643
17.65889 44.469421 2.8318419
17.837698 44.469421 2.8357644
18.016966 44.469421 2.8397317
18.196749 44.469421 2.8437443
18.317163 44.324486 2.838521
18.405622 44.104595 2.8285093
18.515846 43.939281 2.822011
18.695547 43.939281 2.8261576
18.875788 43.939281 2.8303509
19.056557 43.939281 2.8345914
19.237854 43.939281 2.8388772
19.419724 43.939281 2.8432117
19.602177 43.939281 2.8475938
19.785166 43.939281 2.8520231
19.96874 43.939281 2.8565021
20.152885 43.939281 2.8610272
16.639856 35.950287 2.344583
16.789553 35.946106 2.3480902
16.939671 35.941879 2.3516388
16.590406 34.886639 2.2863493
16.641857 34.68417 2.2768517
16.792467 34.689091 2.2809806
16.94367 34.694077 2.2851629
17.095415 34.6991 2.289381
17.247746 34.704189 2.2936511
17.400669 34.709335 2.2979665
17.554188 34.714531 2.3023267
17.708286 34.71978 2.3067327
17.863033 34.725086 2.3111835
18.018387 34.730457 2.3156905
18.174372 34.735878 2.3202415
18.311272 34.704006 2.3223381
18.311272 34.41431 2.3071871
18.311272 34.12833 2.2922587
18.311272 33.846054 2.2775507
18.311274 33.567402 2.2630596
18.311274 33.292244 2.2487764
18.311274 33.020535 2.2347002
18.311274 32.752197 2.2208238
18.311274 32.487137 2.2071447
18.311274 32.225357 2.1936603
18.311274 31.966753 2.1803665
18.311274 31.711248 2.1672583
18.311274 31.458841 2.1543341
10.700873 18.23834 1.2515149
10.68408 18.065887 1.2422161
10.701976 17.953745 1.2370496
10.733472 17.865417 1.233521
10.773551 17.792061 1.2310286
10.820134 17.729921 1.2293181
10.872214 17.67708 1.2282619
10.929293 17.632553 1.2277939
10.991217 17.595913 1.2278893
11.058141 17.567165 1.2285519
11.130481 17.546812 1.2298207
11.209089 17.535967 1.2317777
11.295506 17.53684 1.2345839
11.392916 17.554047 1.2385693
11.509597 17.599865 1.244611
17.112953 25.971161 1.8407903
17.112953 25.776161 1.8311639
17.112953 25.583155 1.8216586
17.112953 25.39216 1.8122735
17.112953 25.20311 1.8030057
16.625822 24.303896 1.7427897
16.625822 24.12393 1.7340112
16.68746 24.034529 1.7317357
16.815119 24.039995 1.7363214
16.943451 24.045517 1.7409544
17.072514 24.051088 1.7456307
17.202293 24.056728 1.7503619
17.332798 24.062422 1.7551394
17.464054 24.068176 1.7599673
17.596041 24.073986 1.7648439
17.728777 24.079855 1.7697678
17.862291 24.085789 1.7747464
17.996553 24.091782 1.7797747
18.131643 24.097841 1.7848587
18.267504 24.10396 1.7899933
18.404184 24.110142 1.7951794
18.541677 24.11639 1.8004241
18.679993 24.122705 1.8057218
18.819153 24.129082 1.8110733
18.959188 24.135529 1.8164835
17.815098 22.517883 1.6993742
17.815096 22.358112 1.6919689
17.933292 22.346996 1.6958232
18.056753 22.34166 1.700161
18.180836 22.336279 1.7045398
18.305529 22.330839 1.7089591
18.311274 22.180508 1.7023034
18.311275 22.024477 1.6951928
18.311274 21.86977 1.6881618
18.311274 21.716295 1.6812072
18.311274 21.564096 1.6743307
18.311275 21.413139 1.667531
18.311274 21.263397 1.6608057
18.311275 21.114868 1.6541543
18.311275 20.967514 1.6475754
18.311277 20.821302 1.6410675
18.311274 20.676264 1.6346316
18.311277 20.532377 1.6282659
18.311275 20.389584 1.6219683
18.311275 20.24789 1.6157389
18.311275 20.107258 1.6095748
18.311277 19.967705 1.603478
18.311277 19.829214 1.5974467
18.311277 19.691755 1.5914793
18.311277 19.555319 1.5855756
18.311277 19.419912 1.5797353
18.311277 19.285456 1.5739546
18.311277 19.151997 1.5682361
16.622343 17.265242 1.4184566
16.622343 17.145832 1.4133711
16.656809 17.06258 1.4112644
16.76767 17.057373 1.4156334
16.879179 17.052114 1.420047
16.991354 17.046801 1.4245048
17.104231 17.041437 1.4290056
17.112957 16.932285 1.4248164
17.112957 16.815233 1.4199526
17.112957 16.698961 1.415138
17.112955 16.583494 1.4103734
11.219655 10.797324 0.92158222
11.219655 10.722631 0.91852212
11.219655 10.648433 0.91549349
11.219655 10.574709 0.91249561
11.219655 10.501474 0.90952802
11.219655 10.428711 0.9065907
11.219655 10.356413 0.90368295
11.219655 10.28458 0.90080452
11.230474 10.223051 0.89882135
11.309026 10.223051 0.90226483
11.388167 10.223051 0.90574479
11.467914 10.223051 0.90926242
11.548293 10.223051 0.91281939
11.629309 10.223051 0.91641498
17.112951 14.938691 1.3444469
17.112953 14.834431 1.3403969
17.112953 14.730801 1.3363879
17.112953 14.627786 1.3324177
17.112951 14.525373 1.3284874
17.112953 14.423581 1.3245974
17.112953 14.322355 1.320744
16.590422 13.787473 1.2767184
16.590424 13.69048 1.2730582
16.590424 13.59404 1.2694325
16.590424 13.498147 1.2658415
16.691206 13.484197 1.269954
16.819321 13.491565 1.2761364
16.948685 13.499019 1.2823908
17.07938 13.506572 1.2887294
17.211401 13.514221 1.2951462
17.344767 13.521968 1.3016453
17.47953 13.529812 1.3082285
17.615671 13.537759 1.3148961
17.753242 13.545811 1.3216517
17.892256 13.55396 1.3284917
18.032728 13.562219 1.3354208
18.174753 13.570593 1.3424468
18.311281 13.573884 1.3490453
17.815372 13.110784 1.3091521
17.815374 13.015783 1.3058279
17.890089 12.975449 1.3079982
18.0336 12.984321 1.3151898
18.178711 12.993313 1.3224785
18.325478 13.002426 1.3298671
15.199272 10.705256 1.1002998
15.123109 10.573335 1.0921252
15.112041 10.487761 1.0886927
15.173229 10.452434 1.0904822
15.234609 10.416997 1.0922909
15.296193 10.38144 1.0941181
15.357986 10.345764 1.0959654
15.41998 10.309971 1.0978312
15.482201 10.274048 1.0997176
20.003464 13.174675 1.417613
20.171373 13.185195 1.4262636
20.341394 13.195868 1.4350405
20.513552 13.206699 1.4439461
20.687908 13.217688 1.4529831
20.864523 13.228848 1.4621565
21.043406 13.240166 1.4714656
21.224583 13.251655 1.4809127
21.408176 13.26332 1.4905043
21.594206 13.275161 1.5002415
21.782763 13.287188 1.5101304
21.973829 13.299397 1.5201697
22.167507 13.311794 1.5303655
22.363838 13.324389 1.5407202
22.562897 13.33718 1.5512383
22.764713 13.350173 1.5619216
22.969423 13.363374 1.5727773
23.177031 13.376787 1.5838063
23.387617 13.390417 1.5950141
23.601257 13.404267 1.6064038
23.818022 13.418346 1.617981
24.03801 13.432661 1.6297498
24.261251 13.447209 1.6417141
19.697268 10.828435 1.3303275
19.64175 10.709377 1.3240616
19.586752 10.591435 1.3178704
19.532269 10.474592 1.3117521
19.617395 10.432793 1.3150311
19.705063 10.391912 1.3184836
19.793194 10.350818 1.3219712
19.881796 10.3095 1.3254931
19.97086 10.267968 1.3290486
20.060427 10.226203 1.3326409
26.957912 13.624751 1.7877016
27.227501 13.642663 1.8024316
27.501633 13.660903 1.817431
27.750771 13.664878 1.8307524
59.271431 28.931152 3.9035678
59.813488 28.939281 3.9326324
60.346416 28.939281 3.9610491
60.887032 28.939281 3.9899235
61.435661 28.939281 4.0192742
61.992435 28.939281 4.0491104
62.557629 28.939281 4.0794449
63.131271 28.939281 4.1102834
63.713665 28.939281 4.1416421
64.305031 28.939281 4.1735344
64.905563 28.939281 4.2059708
65.515442 28.939281 4.2389641
66.135132 28.939281 4.2725377
66.764641 28.939281 4.3066978
67.404305 28.939281 4.3414583
67.483864 28.696674 4.3401432
68.076012 28.670101 4.3718119
68.676872 28.643105 4.4039879
26.216728 10.827643 1.678762
26.136415 10.688538 1.6712356
26.056807 10.550652 1.6637964
26.102077 10.463762 1.6643596
26.209795 10.401572 1.6689172
26.318089 10.339047 1.6735196
26.426985 10.276176 1.6781683
26.536489 10.212954 1.6828628
88.371094 30.537138 5.5337048
87.997086 30.066742 5.5037236
88.260338 29.815264 5.5136895
88.524551 29.562876 5.523756
71.471603 19.802317 4.3894024
71.363106 19.506023 4.3785567
71.580078 19.298754 4.3877373
71.797935 19.090645 4.3970065
60.027634 -5.8610086 3.5696268
85.970253 -11.415342 5.1328053
85.41497 -11.643234 5.1020327
85.195259 -11.914371 5.0913467
85.093979 -12.201233 5.0877919
85.086952 -12.501519 5.0899339
85.187485 -12.818253 5.098577
85.499855 -13.168685 5.1199746
29.008144 -5.8169622 1.7510247
62.844448 -18.384949 3.8753409
62.844448 -18.62182 3.8793011
62.844448 -18.85914 3.8833146
62.844887 -22.482788 3.9503269
62.707355 -22.679193 3.9466019
62.591225 -22.882959 3.9442649
63.270615 -27.981524 4.0945292
62.844448 -28.054064 4.0732217
62.844448 -28.315844 4.0795622
62.844448 -28.578442 4.0859709
36.805992 -17.357615 2.4084487
36.42363 -17.331953 2.3873467
36.047958 -17.306772 2.3666434
35.678856 -17.282068 2.3463316
35.316109 -17.257826 2.3263979
34.959496 -17.234028 2.3068309
34.608955 -17.21067 2.2876248
34.264282 -17.187738 2.2687688
33.925316 -17.165218 2.2502518
33.591911 -17.143103 2.2320676
33.263863 -17.121374 2.2142034
32.941158 -17.100037 2.1966567
32.623589 -17.079067 2.1794157
32.311035 -17.058464 2.1624746
32.003372 -17.038212 2.1458254
31.700466 -17.018311 2.1294603
31.402166 -16.998739 2.1133699
31.108456 -16.979506 2.0975537
30.81917 -16.96059 2.0820007
30.534191 -16.94199 2.0667062
70.871933 -28.655266 2.7988296
70.824829 -28.922401 2.8009133
70.777657 -29.189936 2.8030343
70.730408 -29.457882 2.805192
70.68309 -29.726257 2.8073883
37.940208 -16.26664 1.5113535
37.541477 -16.250044 1.4977055
37.149921 -16.233765 1.4843218
36.76535 -16.217798 1.471195
36.387573 -16.202137 1.4583173
36.016403 -16.186769 1.4456828
35.651653 -16.171692 1.433285
35.293156 -16.156891 1.4211161
34.940735 -16.142363 1.4091716
34.594246 -16.128101 1.397445
34.253498 -16.114096 1.3859301
33.918388 -16.100342 1.3746214
33.588726 -16.086834 1.3635149
33.264393 -16.073561 1.3526027
32.945263 -16.060524 1.3418827
32.631184 -16.047714 1.3313494
32.322041 -16.035122 1.3209972
32.017696 -16.022747 1.310822
31.718056 -16.01058 1.3008199
31.422991 -15.998623 1.2909861
31.132381 -15.986862 1.281317
30.84613 -15.975295 1.2718086
30.564133 -15.963923 1.2624569
30.286295 -15.952735 1.2532585
30.012506 -15.94173 1.2442088
29.74267 -15.9309 1.2353055
29.476713 -15.920246 1.2265456
29.214535 -15.90976 1.2179244
28.95603 -15.89944 1.2094393
28.701157 -15.889284 1.2010882
28.449795 -15.879284 1.1928666
28.245012 -15.893703 1.1865842
28.000109 -15.883998 1.1786027
27.758505 -15.874443 1.1707435
27.520132 -15.865031 1.1630034
27.284924 -15.855762 1.1553805
27.052807 -15.846628 1.1478715
26.823713 -15.837635 1.1404753
26.597586 -15.828772 1.1331873
26.374342 -15.820043 1.1260073
26.153954 -15.811439 1.118932
25.936331 -15.802959 1.1119602
25.721432 -15.794604 1.1050887
25.509211 -15.786369 1.0983162
25.299591 -15.778252 1.0916405
25.092529 -15.770248 1.0850594
24.88798 -15.76236 1.0785713
24.685881 -15.754582 1.0721745
24.486185 -15.746909 1.0658669
24.288849 -15.739346 1.0596464
24.093838 -15.73189 1.0535128
23.901083 -15.724531 1.0474629
23.71055 -15.717275 1.0414958
23.522203 -15.710114 1.035609
23.336008 -15.703053 1.0298028
23.151901 -15.696089 1.0240743
22.969843 -15.689218 1.0184226
22.789816 -15.682434 1.0128455
22.611767 -15.675744 1.0073426
22.435663 -15.66914 1.0019121
22.261471 -15.662621 0.99655294
22.089149 -15.656191 0.99126315
21.918667 -15.649843 0.9860425
21.749985 -15.643577 0.98088908
21.583088 -15.63739 0.97580218
21.417927 -15.631284 0.97078013
21.254467 -15.625253 0.96582174
21.092705 -15.619304 0.96092653
20.932583 -15.613425 0.95609307
20.774082 -15.607622 0.95131993
20.617174 -15.60189 0.94660687
20.474379 -15.605798 0.94253016
20.334316 -15.610823 0.93856883
20.195408 -15.615793 0.93465137
20.057621 -15.620711 0.93077612
19.920971 -15.625573 0.92694378
19.785412 -15.630381 0.92315292
19.650944 -15.63514 0.91940355
19.517546 -15.639846 0.91569448
19.385201 -15.644502 0.91202521
19.253897 -15.649109 0.90839553
19.123613 -15.653665 0.90480471
18.994337 -15.658171 0.90125227
18.866062 -15.662631 0.8977375
18.738764 -15.667043 0.89426017
18.612427 -15.671409 0.89081955
18.487047 -15.675729 0.88741541
18.362604 -15.680003 0.88404679
18.239088 -15.684232 0.8807137
18.116482 -15.688417 0.87741518
18.02812 -15.721633 0.87577128
18.124496 -15.916677 0.88312912
18.123081 -16.0271 0.88576341
17.996481 -16.026711 0.88228774
17.866449 -16.022354 0.87863135
17.737495 -16.018047 0.87501717
17.609613 -16.013786 0.87144232
17.482784 -16.009575 0.86790824
17.356998 -16.005413 0.86441565
17.232224 -16.001293 0.86095929
17.108467 -15.997221 0.85754228
16.985699 -15.993196 0.85416365
16.863899 -15.989214 0.85082269
16.743059 -15.985274 0.84751654
16.650324 -16.007483 0.8456285
16.650324 -16.118969 0.84846234
16.650324 -16.231209 0.85132623
17.184032 -16.868107 0.88159919
17.184032 -16.985527 0.88461614
17.184032 -17.103752 0.88766432
17.184032 -17.222799 0.89074445
17.184032 -17.342676 0.89385653
17.184032 -17.463396 0.89700174
17.184032 -17.584969 0.90017986
17.184032 -17.707405 0.90339136
17.184032 -17.830719 0.90663671
17.173246 -17.943659 0.90934587
17.112957 -18.005262 0.90945458
17.112957 -18.130766 0.91279078
17.112957 -18.257196 0.91616225
17.112957 -18.384573 0.91957045
17.112957 -18.512899 0.92301488
17.112957 -18.642193 0.92649674
17.112955 -18.772459 0.9300158
17.112955 -18.903725 0.93357277
17.112953 -19.036001 0.9371686
17.112957 -19.169302 0.94080377
11.766178 -13.272405 0.6493845
11.684226 -13.272405 0.64739823
11.602771 -13.272405 0.64543176
11.52181 -13.272405 0.64348435
11.441333 -13.272405 0.64155674
11.361335 -13.272405 0.63964868
11.281815 -13.272405 0.63775897
11.202764 -13.272405 0.6358881
11.150855 -13.304244 0.63555717
11.150754 -13.398232 0.63819575
11.15065 -13.493012 0.64086437
11.150547 -13.588576 0.64356303
16.732815 -20.536215 0.96985269
16.625824 -20.550035 0.96777725
16.625826 -20.696421 0.97194743
16.625826 -20.844072 0.97616935
18.128754 -22.890711 1.0690675
5.4333878 -6.9097028 0.32182264
5.3947129 -6.9097028 0.32094955
5.3562479 -6.9097028 0.32008457
5.3560886 -6.959208 0.32151532
5.3560886 -7.0093679 0.32297277
5.3560886 -7.0599842 0.32444715
18.173594 -24.128366 1.1059349
18.180326 -24.312302 1.111469
18.18714 -24.498104 1.1170728
18.194042 -24.685822 1.1227486
18.201035 -24.875481 1.1284969
18.208117 -25.067129 1.1343195
18.215288 -25.260778 1.1402171
18.222555 -25.456486 1.1461911
18.229914 -25.65428 1.1522434
18.205479 -25.808989 1.1563497
18.069189 -25.805311 1.1533704
17.933611 -25.801674 1.1504209
17.805262 -25.807526 1.1479223
18.167435 -26.528845 1.1771958
18.032471 -26.528654 1.1744056
17.898146 -26.528463 1.1716423
17.76445 -26.528276 1.1689057
17.631378 -26.528086 1.1661961
17.498915 -26.527897 1.1635129
17.367065 -26.527714 1.1608562
17.235804 -26.527523 1.1582253
17.105145 -26.52734 1.1556199
16.975061 -26.527155 1.1530406
16.845568 -26.526972 1.1504862
16.716637 -26.526787 1.1479571
16.588272 -26.526606 1.1454527
16.460461 -26.526423 1.1429729
16.333208 -26.526241 1.1405175
16.206493 -26.526058 1.1380861
16.080318 -26.525887 1.1356792
15.954673 -26.525703 1.1332955
15.829634 -26.525658 1.1309419
15.705163 -26.525707 1.1286149
15.58121 -26.525757 1.1263106
15.457751 -26.525803 1.1240296
15.334791 -26.525848 1.1217713
15.21232 -26.525898 1.1195357
15.123359 -26.583977 1.119766
15.187531 -26.913534 1.1314225
15.253171 -27.250227 1.1433461
15.320338 -27.594316 1.1555467
15.389094 -27.946089 1.1680357
15.459486 -28.305798 1.1808224
15.531578 -28.67375 1.1939173
15.605422 -29.050175 1.2073307
15.681085 -29.435438 1.2210746
15.75865 -29.829905 1.2351639
15.838154 -30.233788 1.2496054
15.919701 -30.647568 1.2644181
16.003351 -31.071562 1.2796128
16.089201 -31.506203 1.295207
16.177313 -31.95183 1.3112123
16.267797 -32.408966 1.3276484
16.360746 -32.878052 1.3445323
16.456251 -33.359543 1.3618805
16.554422 -33.853951 1.3797126
16.655376 -34.361877 1.3980501
16.75922 -34.883816 1.416913
16.866085 -35.420429 1.4363244
19.550381 -41.427265 1.677146
19.373344 -41.423725 1.6742721
19.196938 -41.420227 1.6714306
19.021109 -41.416771 1.6686187
18.845896 -41.413345 1.6658373
18.671276 -41.409962 1.6630869
18.497244 -41.406609 1.6603656
18.323786 -41.403294 1.6576748
18.150896 -41.400017 1.6550136
17.978571 -41.396786 1.6523809
17.806801 -41.393574 1.6497784
17.672731 -41.477589 1.6506739
18.269287 -43.293446 1.7204075
18.269289 -43.716103 1.7346745
18.269289 -44.145821 1.7492013
18.269291 -44.582771 1.7639937
18.269289 -45.027206 1.7790613
18.147203 -45.175388 1.7824187
17.966673 -45.178299 1.7800646
17.786577 -45.18119 1.7777367
17.673567 -45.35495 1.7821512
22.331045 -57.899998 2.2720342
22.279036 -58.367229 2.287323
22.302448 -59.042362 2.3107352
22.32638 -59.731556 2.3346639
22.35084 -60.435284 2.3591256
5.4894938 -15.002971 0.58490276
5.4048624 -14.931956 0.58139992
5.3398228 -14.913677 0.57996345
5.2988415 -14.962518 0.58114481
22.481785 -64.189186 2.4900675
22.509838 -64.990898 2.5181246
22.53857 -65.810982 2.5468559
22.568001 -66.650131 2.5762858
22.598154 -67.508987 2.6064391
22.69976 -68.60199 2.6455827
22.434784 -68.597977 2.6424117
22.170471 -68.594025 2.6392822
21.906769 -68.590118 2.6361923
21.643694 -68.586266 2.6331439
5.385191 -17.273535 0.66243935
5.3346772 -17.32271 0.66361189
20.858158 -68.575005 2.6242375
20.603777 -68.592178 2.6221447
20.603773 -69.465706 2.6527896
20.603771 -70.359756 2.6841879
20.603771 -71.275352 2.7163749
20.603769 -72.213127 2.7493753
20.526585 -72.899986 2.7727981
20.253984 -72.899994 2.7701097
19.981915 -72.899994 2.7674603
19.710361 -72.899994 2.7648478
10.12083 -37.954468 1.4381447
9.9399719 -37.80233 1.4310651
9.8050337 -37.822025 1.4305146
18.629124 -72.900002 2.7547808
18.386387 -73.004623 2.7563086
18.235905 -73.482254 2.7719364
12.924543 -52.863518 1.9924436
12.600881 -52.325619 1.9705105
12.431965 -52.422298 1.9725161
17.184021 -73.596252 2.7669778
17.184029 -74.766403 2.8087149
17.184036 -75.972366 2.8517632
17.184046 -77.215958 2.8961883
14.459113 -85.798439 3.185545
14.189326 -86.016808 3.1918063
-10.816162 -79.7724 2.9473495
-11.098042 -79.7724 2.9487534
-11.380206 -79.7724 2.9501958
-8.9658003 -40.474033 1.5177557
-9.0718203 -40.290401 1.5120401
-9.1770506 -40.108135 1.5063856
-9.3435621 -40.194275 1.5108287
-9.5138283 -40.292576 1.5157549
-9.685194 -40.391514 1.5207312
-9.8577156 -40.491123 1.5257595
-21.4928 -86.969406 3.279912
-21.813087 -86.969406 3.2827454
-22.041119 -86.604568 3.2718406
-22.039288 -85.357788 3.2276058
-22.039288 -84.151093 3.1848483
-22.039284 -82.975937 3.1432462
-22.039282 -81.830986 3.1027508
-21.648634 -79.284409 3.0090222
-20.884035 -75.453468 2.8663607
-20.884033 -74.448204 2.8309073
-20.884033 -73.467506 2.7963524
-20.884033 -72.510437 2.7626648
-20.992588 -71.948143 2.7439981
-18.539274 -62.730034 2.3948712
-18.539276 -61.938896 2.3671083
-18.539276 -61.165833 2.3400078
-18.539278 -60.410351 2.3135514
-18.539278 -59.671692 2.2877116
-18.53928 -58.949387 2.2624712
-11.039287 -34.680935 1.3325117
-11.039287 -34.269268 1.3181577
-10.968043 -33.6478 1.2957084
-10.968044 -33.255947 1.2820759
-11.039286 -33.085762 1.2769837
-11.039285 -32.707535 1.2638555
-11.039285 -32.336971 1.251008
-11.039285 -31.973852 1.2384343
-11.039285 -31.617964 1.226125
-11.039285 -31.269106 1.2140739
-11.039283 -30.926996 1.20227
-10.968043 -30.394054 1.1830239
-10.968044 -30.067072 1.1717706
-10.968044 -29.746212 1.1607413
-11.039282 -29.622524 1.1574018
-11.039282 -29.311449 1.1467366
-11.039281 -29.006069 1.1362803
-11.039281 -28.70619 1.1260259
-11.03928 -28.41169 1.1159687
-11.03928 -28.122387 1.1061027
-11.03928 -27.838169 1.0964229
-11.03928 -27.558857 1.0869236
-10.968043 -27.108286 1.070647
-10.968043 -26.840166 1.0615535
-10.968044 -26.576586 1.0526268
-10.968044 -26.317387 1.0438609
-11.039277 -26.231741 1.0419757
-11.039277 -25.97937 1.0334661
-11.039277 -25.731071 1.0251055
-11.039277 -25.486748 1.0168908
-11.039277 -25.246325 1.0088201
-11.039276 -25.00968 1.0008874
-11.103655 -24.921215 0.99888206
-11.197431 -24.899052 0.99954414
-11.301415 -24.899052 1.0011113
-11.40572 -24.899052 1.0026958
-11.510351 -24.899052 1.0042973
-11.615324 -24.899052 1.0059159
-11.765134 -24.993565 1.0113769
-11.853116 -24.955519 1.0114946
-11.959374 -24.955519 1.0131698
-12.06597 -24.955519 1.0148625
-12.172931 -24.955519 1.0165734
-12.28025 -24.955519 1.0183017
-12.387941 -24.955519 1.0200489
-12.496011 -24.955519 1.0218139
-12.604437 -24.955519 1.0235975
-12.713259 -24.955519 1.0254002
-12.822457 -24.955519 1.027221
-12.932047 -24.955519 1.0290608
-13.042037 -24.955519 1.03092
-13.15242 -24.955519 1.0327981
-13.263211 -24.955519 1.0346959
-13.374409 -24.955519 1.0366123
-13.486023 -24.955519 1.0385487
-13.598059 -24.955519 1.0405052
-13.710517 -24.955519 1.0424814
-13.823403 -24.955519 1.0444779
-13.936721 -24.955519 1.0464945
-14.050482 -24.955519 1.0485313
-14.16469 -24.955519 1.0505891
-14.279338 -24.955519 1.0526676
-14.394453 -24.955519 1.0547669
-14.51003 -24.955519 1.0568876
-14.626075 -24.955519 1.0590293
-14.742586 -24.955519 1.0611928
-14.859578 -24.955519 1.0633779
-15.016974 -25.022041 1.0684247
-15.060869 -24.899067 1.065398
-15.179061 -24.899067 1.0676439
-15.297757 -24.899067 1.0699131
-15.41697 -24.899069 1.0722039
-15.536675 -24.899069 1.0745177
-15.656913 -24.899069 1.0768545
-15.777672 -24.899069 1.0792143
-15.898965 -24.899073 1.081598
-16.02079 -24.899073 1.0840046
-18.53928 -28.594805 1.2476943
-18.53928 -28.378716 1.2410636
